0.6010825 -0.07380269 14.56633
0.600862 -0.0742715 14.5656
0.6006415 -0.07474031 14.56487
0.6041272 -0.07567338 14.56285
0.6039053 -0.07614509 14.56212
0.6036834 -0.07661679 14.56139
0.6071637 -0.07756144 14.55935
0.6069405 -0.07803604 14.55862
0.6067172 -0.07851063 14.55788
0.6101921 -0.07946686 14.55582
0.6099675 -0.07994435 14.55508
0.6134382 -0.08090926 14.55301
0.6132123 -0.08138964 14.55227
0.616679 -0.08236323 14.55019
0.6164516 -0.08284651 14.54944
0.6162243 -0.0833298 14.54869
0.615997 -0.08381308 14.54794
0.6157696 -0.08429636 14.54719
0.6155423 -0.08477964 14.54644
0.615315 -0.08526292 14.54569
0.6150876 -0.0857462 14.54494
0.6148603 -0.08622948 14.54419
0.614633 -0.08671276 14.54344
0.6144056 -0.08719604 14.54268
0.6141783 -0.08767933 14.54193
0.613951 -0.08816261 14.54118
0.6137236 -0.08864588 14.54043
0.6134963 -0.08912916 14.53968
0.6095967 -0.08907583 14.54034
0.6093707 -0.08955622 14.53959
0.6091447 -0.09003661 14.53885
0.6089188 -0.090517 14.5381
0.6086928 -0.09099738 14.53735
0.6084668 -0.09147777 14.53661
0.6082408 -0.09195816 14.53586
0.6080149 -0.09243855 14.53512
0.6077889 -0.09291893 14.53437
0.6075629 -0.09339932 14.53362
0.6073369 -0.09387971 14.53288
0.607111 -0.09436009 14.53213
0.606885 -0.09484048 14.53139
0.606659 -0.09532087 14.53064
0.606433 -0.09580126 14.5299
0.6062071 -0.09628164 14.52915
0.6059811 -0.09676203 14.5284
0.6057551 -0.09724241 14.52766
0.6055291 -0.09772281 14.52691
0.6053032 -0.09820319 14.52617
0.6050772 -0.09868357 14.52542
0.6048512 -0.09916396 14.52468
0.6046252 -0.09964435 14.52393
0.6043993 -0.1001247 14.52318
0.6041733 -0.1006051 14.52244
0.6039473 -0.1010855 14.52169
0.6037213 -0.1015659 14.52095
0.6034954 -0.1020463 14.5202
0.6069036 -0.1031443 14.51793
0.6066762 -0.1036276 14.51718
0.6064488 -0.1041109 14.51643
0.6062215 -0.1045941 14.51567
0.6059942 -0.1050774 14.51492
0.6057668 -0.1055607 14.51417
0.6055395 -0.106044 14.51342
0.6053122 -0.1065273 14.51267
0.6050848 -0.1070106 14.51192
0.6084794 -0.1081375 14.5096
0.720612 0.02233602 14.70352
0.7203656 0.02181222 14.7027
0.7201192 0.02128843 14.70189
0.7158956 0.02064992 14.70148
0.7156506 0.02012902 14.70067
0.7154055 0.01960812 14.69986
0.7151605 0.01908722 14.69905
0.7149155 0.01856632 14.69824
0.7146704 0.01804542 14.69743
0.7144254 0.01752451 14.69662
0.7141804 0.01700361 14.69582
0.7179016 0.01657427 14.69457
0.7176552 0.01605048 14.69376
0.7174088 0.01552668 14.69295
0.7171624 0.01500289 14.69213
0.7169161 0.01447909 14.69132
0.7166697 0.0139553 14.69051
0.7203814 0.0135057 14.68923
0.7201337 0.01297902 14.68841
0.7198859 0.01245232 14.6876
0.7235922 0.01199116 14.6863
0.723343 0.01146157 14.68548
0.7230939 0.01093199 14.68466
0.7267948 0.01045924 14.68335
0.7265443 0.009926765 14.68252
0.7262938 0.009394286 14.68169
0.7299892 0.008909966 14.68036
0.7297373 0.008374593 14.67953
0.7334287 0.007881593 14.67819
0.7371172 0.007382803 14.67684
0.6901638 -0.0006913054 14.67065
0.6781642 -0.001180145 14.67163
0.67401 -0.001671064 14.67144
0.6659413 -0.002143583 14.67186
0.6657099 -0.002635545 14.6711
0.6615639 -0.003109105 14.67094
0.6574206 -0.003576875 14.67079
0.6571919 -0.004063051 14.67004
0.6530528 -0.004522141 14.6699
0.6489164 -0.004975441 14.66977
0.6486903 -0.005455826 14.66903
0.6484644 -0.005936216 14.66828
0.6443334 -0.006377939 14.66817
0.6441088 -0.006855435 14.66743
0.6399819 -0.007288478 14.66734
0.6397586 -0.007763077 14.6666
0.6395354 -0.008237676 14.66586
0.6354139 -0.008659146 14.66578
0.635192 -0.009130851 14.66505
0.6349701 -0.009602557 14.66432
0.6308541 -0.01001245 14.66426
0.6306335 -0.01048126 14.66353
0.630413 -0.01095007 14.66281
0.6301925 -0.01141889 14.66208
0.6260833 -0.01181431 14.66204
0.6258641 -0.01228022 14.66132
0.6256449 -0.01274614 14.66059
0.6254257 -0.01321206 14.65987
0.6252065 -0.01367798 14.65915
0.6211055 -0.01405604 14.65914
0.6208877 -0.01451906 14.65842
0.6206699 -0.01498208 14.6577
0.6204521 -0.01544511 14.65698
0.6202343 -0.01590813 14.65626
0.6200165 -0.01637116 14.65554
0.6197987 -0.01683418 14.65483
0.6157085 -0.01718909 14.65485
0.615492 -0.01764922 14.65414
0.6152756 -0.01810935 14.65342
0.6150591 -0.01856948 14.65271
0.6148427 -0.0190296 14.65199
0.6223574 -0.0197349 14.64974
0.6221382 -0.02020082 14.64902
0.621919 -0.02066674 14.6483
0.6216999 -0.02113266 14.64757
0.6214807 -0.02159857 14.64685
0.6212615 -0.02206449 14.64613
0.6210424 -0.02253041 14.6454
0.6169671 -0.02285348 14.64548
0.6167493 -0.02331651 14.64476
0.6165316 -0.02377953 14.64404
0.6163138 -0.02424256 14.64332
0.616096 -0.02470558 14.6426
0.6158781 -0.0251686 14.64189
0.6156603 -0.02563163 14.64117
0.6154425 -0.02609465 14.64045
0.6152247 -0.02655767 14.63973
0.6150069 -0.0270207 14.63901
0.6147891 -0.02748372 14.63829
0.6145713 -0.02794674 14.63757
0.6143535 -0.02840977 14.63685
0.6141357 -0.02887279 14.63614
0.6139179 -0.02933582 14.63542
0.6137 -0.02979884 14.6347
0.6134822 -0.03026186 14.63398
0.6132644 -0.03072488 14.63326
0.6130466 -0.03118791 14.63254
0.6089987 -0.03145311 14.63271
0.6087822 -0.03191324 14.63199
0.6085657 -0.03237337 14.63128
0.6083493 -0.03283349 14.63056
0.6081329 -0.03329362 14.62985
0.6079164 -0.03375375 14.62914
0.6077 -0.03421388 14.62842
0.6074836 -0.03467401 14.62771
0.6072671 -0.03513414 14.62699
0.6070507 -0.03559427 14.62628
0.6068342 -0.0360544 14.62556
0.6066177 -0.03651453 14.62485
0.6064013 -0.03697466 14.62414
0.6061848 -0.03743479 14.62342
0.6059684 -0.03789492 14.62271
0.605752 -0.03835505 14.62199
0.6055355 -0.03881518 14.62128
0.6053191 -0.03927531 14.62056
0.6051027 -0.03973544 14.61985
0.6048862 -0.04019557 14.61913
0.6046697 -0.0406557 14.61842
0.6044533 -0.04111583 14.61771
0.6042368 -0.04157596 14.61699
0.6040204 -0.04203609 14.61628
0.603804 -0.04249622 14.61556
0.6035875 -0.04295634 14.61485
0.6033711 -0.04341648 14.61413
0.6031546 -0.04387661 14.61342
0.6029382 -0.04433674 14.61271
0.6027218 -0.04479687 14.61199
0.6025053 -0.04525699 14.61128
0.6022888 -0.04571712 14.61056
0.6020724 -0.04617725 14.60985
0.6018559 -0.04663738 14.60913
0.6016395 -0.04709751 14.60842
0.6014231 -0.04755764 14.60771
0.6012066 -0.04801777 14.60699
0.6009902 -0.0484779 14.60628
0.6007737 -0.04893803 14.60556
0.6005573 -0.04939816 14.60485
0.6003408 -0.04985829 14.60413
0.6001244 -0.05031842 14.60342
0.5999079 -0.05077855 14.60271
0.5996915 -0.05123868 14.60199
0.599475 -0.05169881 14.60128
0.6030275 -0.05248699 14.59947
0.6028097 -0.05295001 14.59876
0.6025919 -0.05341304 14.59804
0.6023741 -0.05387606 14.59732
0.6021563 -0.05433908 14.5966
0.6019385 -0.05480211 14.59588
0.6017206 -0.05526513 14.59516
0.6015028 -0.05572816 14.59444
0.601285 -0.05619118 14.59372
0.6010672 -0.0566542 14.59301
0.6008494 -0.05711722 14.59229
0.6006316 -0.05758025 14.59157
0.6004138 -0.05804328 14.59085
0.600196 -0.0585063 14.59013
0.5999782 -0.05896932 14.58941
0.5997604 -0.05943234 14.58869
0.5995426 -0.05989537 14.58797
0.5993248 -0.06035839 14.58726
0.6028514 -0.06120156 14.58537
0.6026322 -0.06166747 14.58465
0.6024131 -0.06213339 14.58392
0.6021939 -0.06259931 14.5832
0.6019747 -0.06306523 14.58248
0.6017555 -0.06353115 14.58175
0.6015363 -0.06399707 14.58103
0.6013172 -0.06446298 14.58031
0.593631 -0.06412231 14.58199
0.5934145 -0.06458244 14.58127
0.5931981 -0.06504257 14.58056
0.5929817 -0.0655027 14.57985
0.5964933 -0.0663777 14.57791
0.5962754 -0.06684072 14.57719
0.5960577 -0.06730375 14.57647
0.5958399 -0.06776677 14.57575
0.5956221 -0.06822979 14.57504
0.5954043 -0.06869282 14.57432
0.5951864 -0.06915584 14.5736
0.5986872 -0.07005399 14.57163
0.598468 -0.07051991 14.5709
0.5982488 -0.07098582 14.57018
0.5980297 -0.07145175 14.56946
0.5978105 -0.07191766 14.56873
0.601303 -0.07283317 14.56673
0.6010825 -0.07330199 14.56601
0.600862 -0.0737708 14.56528
0.6006415 -0.0742396 14.56455
0.6041272 -0.07516959 14.56253
0.6039053 -0.0756413 14.5618
0.6036834 -0.076113 14.56107
0.6071637 -0.07705455 14.55903
0.6069405 -0.07752915 14.55829
0.6067172 -0.07800375 14.55755
0.6101921 -0.07895689 14.5555
0.6099675 -0.07943437 14.55476
0.6134382 -0.08039619 14.55268
0.6132123 -0.08087657 14.55194
0.616679 -0.08184707 14.54986
0.6164516 -0.08233035 14.5491
0.6162243 -0.08281364 14.54835
0.615997 -0.08329692 14.5476
0.6157696 -0.0837802 14.54685
0.6155423 -0.08426348 14.5461
0.615315 -0.08474676 14.54535
0.6150876 -0.08523004 14.5446
0.6148603 -0.08571332 14.54385
0.614633 -0.0861966 14.5431
0.6144056 -0.08667988 14.54235
0.6141783 -0.08716317 14.5416
0.613951 -0.08764645 14.54085
0.6137236 -0.08812972 14.5401
0.6134963 -0.088613 14.53935
0.613269 -0.08909629 14.5386
0.6130416 -0.08957957 14.53785
0.6128142 -0.09006285 14.5371
0.6125869 -0.09054613 14.53635
0.6123596 -0.09102941 14.5356
0.6121323 -0.09151269 14.53485
0.6119049 -0.09199597 14.5341
0.6116776 -0.09247925 14.53335
0.6114503 -0.09296253 14.5326
0.6112229 -0.09344582 14.53185
0.6109956 -0.0939291 14.5311
0.6107683 -0.09441238 14.53035
0.6105409 -0.09489566 14.5296
0.6103136 -0.09537894 14.52885
0.6100863 -0.09586222 14.5281
0.6098589 -0.0963455 14.52735
0.6096315 -0.09682878 14.5266
0.6094042 -0.09731206 14.52585
0.6091769 -0.09779534 14.5251
0.6089495 -0.09827862 14.52435
0.6087222 -0.09876191 14.52359
0.6084949 -0.09924518 14.52285
0.6082675 -0.09972847 14.52209
0.6080402 -0.1002117 14.52134
0.6078129 -0.100695 14.52059
0.6075855 -0.1011783 14.51984
0.6073582 -0.1016616 14.51909
0.6071309 -0.1021449 14.51834
0.6069036 -0.1026281 14.51759
0.6066762 -0.1031114 14.51684
0.6064488 -0.1035947 14.51609
0.6062215 -0.104078 14.51534
0.6096229 -0.1051874 14.51304
0.720612 0.02289545 14.70316
0.7203656 0.02237165 14.70234
0.7161406 0.02172716 14.70193
0.7158956 0.02120626 14.70112
0.7156506 0.02068536 14.70031
0.7154055 0.02016446 14.6995
0.7151605 0.01964355 14.69869
0.7149155 0.01912266 14.69788
0.7146704 0.01860175 14.69707
0.7144254 0.01808085 14.69627
0.7141804 0.01755995 14.69546
0.7139353 0.01703905 14.69465
0.7176552 0.01660991 14.6934
0.7174088 0.01608611 14.69258
0.7171624 0.01556232 14.69177
0.7169161 0.01503852 14.69096
0.7206292 0.01459491 14.68969
0.7203814 0.01406822 14.68887
0.7201337 0.01354154 14.68805
0.7198859 0.01301484 14.68723
0.7235922 0.01255677 14.68594
0.723343 0.01202718 14.68512
0.7270452 0.01156042 14.68381
0.7267948 0.01102794 14.68298
0.7265443 0.01049547 14.68215
0.7302411 0.01001713 14.68083
0.7299892 0.00948176 14.68
0.7336819 0.008994743 14.67866
0.7373718 0.008501937 14.67731
0.6781642 -0.000645441 14.67128
0.67401 -0.001139452 14.6711
0.6698586 -0.00162768 14.67092
0.6657099 -0.002110114 14.67076
0.6615639 -0.002586766 14.6706
0.6574206 -0.003057627 14.67046
0.6571919 -0.003543803 14.6697
0.6530528 -0.004005984 14.66957
0.6528255 -0.004489263 14.66882
0.6486903 -0.00494276 14.6687
0.6484644 -0.00542315 14.66795
0.6443334 -0.005867964 14.66784
0.6441088 -0.00634546 14.6671
0.6399819 -0.006781594 14.66701
0.6397586 -0.007256193 14.66627
0.6395354 -0.007730792 14.66554
0.6354139 -0.00815535 14.66546
0.635192 -0.008627055 14.66473
0.6349701 -0.009098761 14.664
0.6308541 -0.009511746 14.66394
0.6306335 -0.009980556 14.66321
0.630413 -0.01044937 14.66248
0.6301925 -0.01091818 14.66176
0.6260833 -0.01131669 14.66172
0.6258641 -0.01178261 14.661
0.6256449 -0.01224853 14.66027
0.6254257 -0.01271445 14.65955
0.6252065 -0.01318036 14.65883
0.6249874 -0.01364628 14.6581
0.6208877 -0.01402454 14.6581
0.6206699 -0.01448756 14.65738
0.6204521 -0.01495059 14.65666
0.6202343 -0.01541361 14.65594
0.6200165 -0.01587663 14.65523
0.6197987 -0.01633966 14.65451
0.6195809 -0.01680268 14.65379
0.6193631 -0.0172657 14.65307
0.6268845 -0.01795035 14.65084
0.626664 -0.01841916 14.65011
0.6225765 -0.01877137 14.65015
0.6223574 -0.01923729 14.64942
0.6221382 -0.01970321 14.6487
0.621919 -0.02016912 14.64798
0.6216999 -0.02063504 14.64725
0.6214807 -0.02110096 14.64653
0.6212615 -0.02156688 14.64581
0.6210424 -0.0220328 14.64508
0.6208232 -0.02249871 14.64436
0.620604 -0.02296463 14.64364
0.6165316 -0.02328501 14.64372
0.6163138 -0.02374803 14.64301
0.616096 -0.02421106 14.64229
0.6158781 -0.02467408 14.64157
0.6156603 -0.0251371 14.64085
0.6154425 -0.02560013 14.64013
0.6152247 -0.02606315 14.63941
0.6150069 -0.02652617 14.63869
0.6147891 -0.0269892 14.63797
0.6145713 -0.02745222 14.63725
0.6143535 -0.02791524 14.63654
0.6141357 -0.02837827 14.63582
0.6139179 -0.02884129 14.6351
0.6137 -0.02930432 14.63438
0.6134822 -0.02976734 14.63366
0.6132644 -0.03023036 14.63294
0.6130466 -0.03069339 14.63222
0.6128289 -0.03115641 14.6315
0.612611 -0.03161943 14.63078
0.6123932 -0.03208245 14.63007
0.6121754 -0.03254548 14.62935
0.6119576 -0.0330085 14.62863
0.6117398 -0.03347152 14.62791
0.611522 -0.03393455 14.62719
0.6113042 -0.03439757 14.62647
0.6110864 -0.0348606 14.62575
0.6108686 -0.03532362 14.62503
0.6068342 -0.03556297 14.62525
0.6066177 -0.0360231 14.62453
0.6064013 -0.03648322 14.62382
0.6061848 -0.03694336 14.6231
0.6059684 -0.03740349 14.62239
0.605752 -0.03786362 14.62168
0.6055355 -0.03832375 14.62096
0.6053191 -0.03878387 14.62025
0.6051027 -0.039244 14.61953
0.6048862 -0.03970413 14.61882
0.6046697 -0.04016426 14.6181
0.6044533 -0.04062439 14.61739
0.6042368 -0.04108452 14.61667
0.6040204 -0.04154465 14.61596
0.603804 -0.04200478 14.61525
0.6035875 -0.04246491 14.61453
0.6033711 -0.04292504 14.61382
0.6031546 -0.04338517 14.6131
0.6029382 -0.0438453 14.61239
0.6027218 -0.04430543 14.61167
0.6025053 -0.04476556 14.61096
0.6022888 -0.04522569 14.61025
0.6020724 -0.04568582 14.60953
0.6018559 -0.04614595 14.60882
0.6016395 -0.04660608 14.6081
0.6014231 -0.04706621 14.60739
0.6049877 -0.04782525 14.60563
0.6047699 -0.04828828 14.60491
0.6045521 -0.0487513 14.60419
0.6043344 -0.04921433 14.60347
0.6041166 -0.04967735 14.60275
0.6038987 -0.05014037 14.60203
0.6036809 -0.0506034 14.60131
0.6034631 -0.05106642 14.60059
0.6032453 -0.05152944 14.59988
0.6030275 -0.05199247 14.59916
0.6028097 -0.05245549 14.59844
0.6025919 -0.05291852 14.59772
0.6023741 -0.05338154 14.597
0.6021563 -0.05384456 14.59628
0.6019385 -0.05430758 14.59556
0.6017206 -0.05477061 14.59484
0.6015028 -0.05523363 14.59412
0.601285 -0.05569666 14.59341
0.6010672 -0.05615968 14.59269
0.6008494 -0.0566227 14.59197
0.6006316 -0.05708573 14.59125
0.6004138 -0.05754875 14.59053
0.600196 -0.05801177 14.58981
0.5999782 -0.0584748 14.58909
0.5997604 -0.05893782 14.58837
0.6032897 -0.05977211 14.5865
0.6030706 -0.06023803 14.58577
0.6028514 -0.06070394 14.58505
0.6026322 -0.06116986 14.58432
0.6024131 -0.06163578 14.5836
0.6021939 -0.06210169 14.58288
0.6019747 -0.06256761 14.58216
0.6017555 -0.06303354 14.58143
0.6015363 -0.06349945 14.58071
0.6013172 -0.06396537 14.57999
0.6048315 -0.06483149 14.57806
0.604611 -0.06530029 14.57733
0.5969289 -0.06495713 14.57903
0.5967111 -0.06542016 14.57831
0.5964933 -0.06588318 14.57759
0.5962754 -0.0663462 14.57687
0.5960577 -0.06680922 14.57615
0.5958399 -0.06727225 14.57544
0.5956221 -0.06773527 14.57472
0.5954043 -0.06819829 14.574
0.5951864 -0.06866132 14.57328
0.5986872 -0.06955638 14.57131
0.598468 -0.07002229 14.57058
0.5982488 -0.07048821 14.56986
0.5980297 -0.07095413 14.56914
0.5978105 -0.07142005 14.56841
0.601303 -0.07233247 14.56641
0.6010825 -0.07280128 14.56568
0.600862 -0.07327009 14.56496
0.6006415 -0.0737389 14.56423
0.6041272 -0.07466579 14.56221
0.6039053 -0.0751375 14.56147
0.6036834 -0.07560921 14.56074
0.6071637 -0.07654767 14.5587
0.6069405 -0.07702227 14.55796
0.6104167 -0.07796942 14.55591
0.6101921 -0.07844691 14.55517
0.6099675 -0.0789244 14.55443
0.6134382 -0.07988313 14.55235
0.6132123 -0.08036351 14.55161
0.616679 -0.08133092 14.54952
0.6164516 -0.0818142 14.54877
0.6162243 -0.08229747 14.54802
0.615997 -0.08278076 14.54727
0.6157696 -0.08326405 14.54652
0.6155423 -0.08374732 14.54577
0.615315 -0.0842306 14.54502
0.6150876 -0.08471388 14.54427
0.6148603 -0.08519717 14.54352
0.614633 -0.08568045 14.54277
0.6144056 -0.08616372 14.54202
0.6141783 -0.086647 14.54127
0.613951 -0.08713029 14.54052
0.6137236 -0.08761357 14.53977
0.6134963 -0.08809685 14.53902
0.613269 -0.08858013 14.53827
0.6130416 -0.08906341 14.53752
0.6128142 -0.0895467 14.53677
0.6125869 -0.09002997 14.53602
0.6123596 -0.09051325 14.53527
0.6121323 -0.09099653 14.53452
0.6119049 -0.09147982 14.53377
0.6116776 -0.0919631 14.53302
0.6114503 -0.09244637 14.53227
0.6112229 -0.09292966 14.53152
0.6109956 -0.09341294 14.53077
0.6107683 -0.09389622 14.53001
0.6105409 -0.0943795 14.52927
0.6103136 -0.09486278 14.52851
0.6100863 -0.09534606 14.52776
0.6098589 -0.09582934 14.52701
0.6096315 -0.09631262 14.52626
0.6094042 -0.0967959 14.52551
0.6091769 -0.09727918 14.52476
0.6089495 -0.09776247 14.52401
0.6087222 -0.09824575 14.52326
0.6084949 -0.09872903 14.52251
0.6082675 -0.09921231 14.52176
0.6080402 -0.09969559 14.52101
0.6078129 -0.1001789 14.52026
0.6112238 -0.1012649 14.51799
0.6109951 -0.1017511 14.51724
0.6107664 -0.1022373 14.51648
0.724841 0.02411115 14.70322
0.720612 0.02345488 14.7028
0.7163857 0.0228044 14.70238
0.7161406 0.0222835 14.70157
0.7158956 0.0217626 14.70076
0.7156506 0.0212417 14.69995
0.7154055 0.0207208 14.69914
0.7151605 0.02019989 14.69833
0.7149155 0.019679 14.69753
0.7146704 0.01915809 14.69672
0.7144254 0.01863719 14.69591
0.7141804 0.01811629 14.6951
0.7139353 0.01759539 14.69429
0.7176552 0.01716934 14.69304
0.7174088 0.01664554 14.69222
0.7171624 0.01612175 14.69141
0.7169161 0.01559795 14.6906
0.7206292 0.01515743 14.68932
0.7203814 0.01463075 14.68851
0.7201337 0.01410406 14.68769
0.7238412 0.01365196 14.6864
0.7235922 0.01312238 14.68557
0.723343 0.01259279 14.68475
0.7270452 0.01212912 14.68344
0.7267948 0.01159664 14.68261
0.7304929 0.01112429 14.68129
0.7302411 0.01058892 14.68046
0.7339351 0.01010789 14.67912
0.7336819 0.009569625 14.67829
0.6860042 -0.0001120304 14.66975
0.67401 -0.0006078394 14.67076
0.6698586 -0.001099159 14.67058
0.6657099 -0.001584684 14.67042
0.6615639 -0.002064427 14.67027
0.6613339 -0.002553496 14.66951
0.6571919 -0.003024551 14.66937
0.6530528 -0.003489824 14.66923
0.6528255 -0.003973102 14.66848
0.6486903 -0.004429691 14.66837
0.6484644 -0.004910081 14.66762
0.6443334 -0.005357986 14.66752
0.6441088 -0.005835482 14.66677
0.6399819 -0.006274708 14.66668
0.6397586 -0.006749306 14.66595
0.6395354 -0.007223905 14.66521
0.6354139 -0.007651554 14.66514
0.635192 -0.008123259 14.6644
0.6349701 -0.008594965 14.66367
0.6347482 -0.00906667 14.66294
0.6306335 -0.009479851 14.66289
0.630413 -0.009948663 14.66216
0.6301925 -0.01041748 14.66143
0.6260833 -0.01081908 14.6614
0.6258641 -0.01128499 14.66068
0.6256449 -0.01175091 14.65995
0.6254257 -0.01221683 14.65923
0.6252065 -0.01268275 14.65851
0.6249874 -0.01314866 14.65778
0.6208877 -0.01353001 14.65778
0.6206699 -0.01399304 14.65706
0.6204521 -0.01445606 14.65634
0.6202343 -0.01491908 14.65563
0.6200165 -0.01538211 14.65491
0.6275461 -0.01604321 14.6527
0.6273256 -0.01651202 14.65197
0.6271051 -0.01698083 14.65124
0.6268845 -0.01744965 14.65052
0.626664 -0.01791846 14.64979
0.6264434 -0.01838727 14.64906
0.6223574 -0.01873967 14.6491
0.6221382 -0.01920559 14.64838
0.621919 -0.01967151 14.64766
0.6216999 -0.02013743 14.64693
0.6214807 -0.02060334 14.64621
0.6212615 -0.02106926 14.64549
0.6210424 -0.02153518 14.64476
0.6208232 -0.0220011 14.64404
0.620604 -0.02246701 14.64332
0.6203849 -0.02293293 14.64259
0.6201657 -0.02339885 14.64187
0.6199465 -0.02386477 14.64115
0.6197274 -0.02433068 14.64042
0.6156603 -0.02464258 14.64053
0.6154425 -0.0251056 14.63981
0.6152247 -0.02556862 14.63909
0.6150069 -0.02603165 14.63837
0.6147891 -0.02649467 14.63766
0.6145713 -0.0269577 14.63694
0.6143535 -0.02742072 14.63622
0.6141357 -0.02788374 14.6355
0.6139179 -0.02834677 14.63478
0.6137 -0.02880979 14.63406
0.6134822 -0.02927281 14.63334
0.6132644 -0.02973584 14.63262
0.6130466 -0.03019886 14.6319
0.6128289 -0.03066188 14.63119
0.612611 -0.03112491 14.63047
0.6123932 -0.03158793 14.62975
0.6121754 -0.03205095 14.62903
0.6119576 -0.03251398 14.62831
0.6117398 -0.032977 14.62759
0.611522 -0.03344002 14.62687
0.6113042 -0.03390305 14.62615
0.6110864 -0.03436607 14.62543
0.6108686 -0.0348291 14.62472
0.6106508 -0.03529212 14.624
0.6104329 -0.03575514 14.62328
0.6102151 -0.03621817 14.62256
0.6099973 -0.03668119 14.62184
0.6097795 -0.03714421 14.62112
0.6095617 -0.03760723 14.6204
0.6093439 -0.03807026 14.61968
0.6091261 -0.03853328 14.61897
0.6089083 -0.03899631 14.61825
0.6086905 -0.03945933 14.61753
0.6084727 -0.03992235 14.61681
0.6082548 -0.04038538 14.61609
0.6080371 -0.0408484 14.61537
0.6078193 -0.04131142 14.61465
0.6076015 -0.04177445 14.61393
0.6073837 -0.04223747 14.61321
0.6071658 -0.0427005 14.6125
0.606948 -0.04316352 14.61178
0.6067302 -0.04362654 14.61106
0.6065124 -0.04408957 14.61034
0.6062946 -0.04455259 14.60962
0.6060768 -0.04501561 14.6089
0.605859 -0.04547863 14.60818
0.6056412 -0.04594166 14.60746
0.6054234 -0.04640468 14.60674
0.6052056 -0.04686771 14.60603
0.6049877 -0.04733073 14.60531
0.6047699 -0.04779375 14.60459
0.6045521 -0.04825678 14.60387
0.6043344 -0.0487198 14.60315
0.6041166 -0.04918282 14.60243
0.6038987 -0.04964585 14.60171
0.6036809 -0.05010887 14.60099
0.6034631 -0.0505719 14.60028
0.6032453 -0.05103492 14.59956
0.6030275 -0.05149794 14.59884
0.6028097 -0.05196096 14.59812
0.6025919 -0.05242399 14.5974
0.6023741 -0.05288701 14.59668
0.6021563 -0.05335004 14.59596
0.6019385 -0.05381306 14.59524
0.6017206 -0.05427608 14.59453
0.6015028 -0.05473911 14.59381
0.601285 -0.05520213 14.59309
0.6010672 -0.05566515 14.59237
0.6008494 -0.05612818 14.59165
0.6006316 -0.0565912 14.59093
0.6041664 -0.05741082 14.58907
0.6039472 -0.05787674 14.58834
0.6037281 -0.05834265 14.58762
0.6035089 -0.05880857 14.5869
0.6032897 -0.05927449 14.58617
0.6030706 -0.05974041 14.58545
0.6028514 -0.06020632 14.58473
0.6026322 -0.06067224 14.584
0.6024131 -0.06113816 14.58328
0.6021939 -0.06160408 14.58256
0.6019747 -0.06206999 14.58183
0.6017555 -0.06253592 14.58111
0.6015363 -0.06300183 14.58039
0.6050521 -0.06386197 14.57846
0.6048315 -0.06433078 14.57773
0.604611 -0.06479959 14.57701
0.6043904 -0.0652684 14.57628
0.60417 -0.06573722 14.57555
0.6039494 -0.06620603 14.57482
0.5962754 -0.06585167 14.57655
0.5960577 -0.0663147 14.57584
0.5958399 -0.06677772 14.57512
0.5956221 -0.06724074 14.5744
0.5954043 -0.06770377 14.57368
0.5989063 -0.06859285 14.57171
0.5986872 -0.06905876 14.57098
0.598468 -0.06952468 14.57026
0.5982488 -0.0699906 14.56954
0.5980297 -0.07045651 14.56882
0.6015236 -0.07136295 14.56682
0.601303 -0.07183176 14.56609
0.6010825 -0.07230058 14.56536
0.600862 -0.07276939 14.56463
0.6043491 -0.0736903 14.56261
0.6041272 -0.074162 14.56188
0.6039053 -0.0746337 14.56115
0.607387 -0.07556618 14.55911
0.6071637 -0.07604078 14.55837
0.6069405 -0.07651538 14.55764
0.6104167 -0.07745944 14.55558
0.6101921 -0.07793693 14.55484
0.6099675 -0.07841443 14.5541
0.6134382 -0.07937006 14.55202
0.6132123 -0.07985044 14.55128
0.616679 -0.08081476 14.54919
0.6164516 -0.08129804 14.54844
0.6199142 -0.08227103 14.54634
0.6196856 -0.0827572 14.54558
0.6157696 -0.08274788 14.54619
0.6155423 -0.08323116 14.54544
0.615315 -0.08371444 14.54469
0.6150876 -0.08419772 14.54394
0.6148603 -0.084681 14.54319
0.614633 -0.08516429 14.54244
0.6144056 -0.08564757 14.54169
0.6141783 -0.08613085 14.54094
0.613951 -0.08661413 14.54019
0.6137236 -0.08709741 14.53944
0.6134963 -0.08758069 14.53869
0.613269 -0.08806397 14.53794
0.6130416 -0.08854725 14.53719
0.6128142 -0.08903053 14.53644
0.6125869 -0.08951381 14.53568
0.6123596 -0.08999709 14.53493
0.6121323 -0.09048037 14.53418
0.6119049 -0.09096365 14.53343
0.6116776 -0.09144694 14.53268
0.6114503 -0.09193022 14.53193
0.6112229 -0.0924135 14.53118
0.6109956 -0.09289677 14.53043
0.6107683 -0.09338006 14.52968
0.6141968 -0.0944254 14.52747
0.6139681 -0.09491158 14.52671
0.6137394 -0.09539775 14.52596
0.6135107 -0.09588393 14.5252
0.613282 -0.0963701 14.52445
0.6130533 -0.09685627 14.52369
0.6128246 -0.09734245 14.52294
0.6125959 -0.09782863 14.52219
0.6123672 -0.0983148 14.52143
0.6121386 -0.09880097 14.52068
0.7208584 0.02453811 14.70325
0.720612 0.02401431 14.70244
0.7163857 0.02336074 14.70202
0.7161406 0.02283984 14.70121
0.7158956 0.02231894 14.7004
0.7156506 0.02179804 14.69959
0.7154055 0.02127714 14.69878
0.7151605 0.02075623 14.69798
0.7149155 0.02023533 14.69717
0.7146704 0.01971443 14.69636
0.7144254 0.01919353 14.69555
0.7141804 0.01867263 14.69474
0.7139353 0.01815172 14.69393
0.7176552 0.01772877 14.69268
0.7174088 0.01720497 14.69186
0.7171624 0.01668118 14.69105
0.7169161 0.01615738 14.69024
0.7206292 0.01571995 14.68896
0.7203814 0.01519326 14.68814
0.7201337 0.01466658 14.68733
0.7238412 0.01421757 14.68603
0.7235922 0.01368799 14.68521
0.723343 0.0131584 14.68439
0.7270452 0.01269782 14.68307
0.7267948 0.01216535 14.68225
0.7304929 0.01169608 14.68092
0.7341883 0.01122104 14.67959
0.7339351 0.01068277 14.67875
0.6779287 -7.667944E-05 14.66982
0.6737759 -0.0005739793 14.66964
0.6657099 -0.001059251 14.67008
0.6615639 -0.001542084 14.66993
0.6613339 -0.002031153 14.66917
0.6571919 -0.002505303 14.66903
0.6530528 -0.002973667 14.6689
0.6528255 -0.003456945 14.66815
0.6486903 -0.003916625 14.66804
0.6484644 -0.004397015 14.66729
0.6443334 -0.004848008 14.66719
0.6441088 -0.005325504 14.66645
0.6438841 -0.005802996 14.6657
0.6397586 -0.00624242 14.66562
0.6395354 -0.006717018 14.66488
0.6354139 -0.007147758 14.66481
0.635192 -0.007619464 14.66408
0.6349701 -0.008091169 14.66335
0.6347482 -0.008562875 14.66261
0.6306335 -0.008979146 14.66257
0.630413 -0.009447959 14.66184
0.6301925 -0.009916771 14.66111
0.6299719 -0.01038558 14.66038
0.6258641 -0.01078738 14.66036
0.6256449 -0.0112533 14.65963
0.6254257 -0.01171922 14.65891
0.6252065 -0.01218513 14.65819
0.6249874 -0.01265105 14.65746
0.6247682 -0.01311697 14.65674
0.624549 -0.01358289 14.65602
0.6243299 -0.0140488 14.65529
0.6318636 -0.01469504 14.6531
0.6316417 -0.01516675 14.65236
0.6275461 -0.01554251 14.65238
0.6273256 -0.01601132 14.65165
0.6271051 -0.01648013 14.65092
0.6268845 -0.01694894 14.65019
0.626664 -0.01741775 14.64947
0.6264434 -0.01788656 14.64874
0.6262229 -0.01835538 14.64801
0.6260024 -0.01882419 14.64728
0.621919 -0.01917389 14.64734
0.6216999 -0.01963981 14.64661
0.6214807 -0.02010573 14.64589
0.6212615 -0.02057165 14.64517
0.6210424 -0.02103757 14.64444
0.6208232 -0.02150348 14.64372
0.620604 -0.0219694 14.643
0.6203849 -0.02243532 14.64227
0.6201657 -0.02290124 14.64155
0.6199465 -0.02336715 14.64083
0.6197274 -0.02383307 14.6401
0.6195081 -0.02429899 14.63938
0.619289 -0.0247649 14.63866
0.6190698 -0.02523082 14.63793
0.6188506 -0.02569674 14.63721
0.6186315 -0.02616266 14.63649
0.6184123 -0.02662857 14.63576
0.6143535 -0.0269262 14.6359
0.6141357 -0.02738922 14.63518
0.6139179 -0.02785224 14.63446
0.6137 -0.02831527 14.63374
0.6134822 -0.02877829 14.63302
0.6132644 -0.02924132 14.6323
0.6130466 -0.02970434 14.63159
0.6128289 -0.03016736 14.63087
0.612611 -0.03063039 14.63015
0.6123932 -0.03109341 14.62943
0.6121754 -0.03155643 14.62871
0.6119576 -0.03201945 14.62799
0.6117398 -0.03248248 14.62727
0.611522 -0.0329455 14.62655
0.6113042 -0.03340853 14.62584
0.6110864 -0.03387155 14.62512
0.6108686 -0.03433457 14.6244
0.6106508 -0.03479759 14.62368
0.6104329 -0.03526062 14.62296
0.6102151 -0.03572364 14.62224
0.6099973 -0.03618667 14.62152
0.6097795 -0.03664969 14.6208
0.6095617 -0.03711271 14.62008
0.6093439 -0.03757574 14.61937
0.6091261 -0.03803876 14.61865
0.6089083 -0.03850178 14.61793
0.6086905 -0.03896481 14.61721
0.6084727 -0.03942783 14.61649
0.6082548 -0.03989086 14.61577
0.6080371 -0.04035388 14.61505
0.6078193 -0.0408169 14.61433
0.6076015 -0.04127993 14.61362
0.6073837 -0.04174295 14.6129
0.6071658 -0.04220597 14.61218
0.606948 -0.04266899 14.61146
0.6067302 -0.04313202 14.61074
0.6065124 -0.04359504 14.61002
0.6062946 -0.04405807 14.6093
0.6060768 -0.04452109 14.60858
0.605859 -0.04498411 14.60786
0.6056412 -0.04544714 14.60715
0.6054234 -0.04591016 14.60643
0.6052056 -0.04637318 14.60571
0.6049877 -0.04683621 14.60499
0.6047699 -0.04729923 14.60427
0.6045521 -0.04776226 14.60355
0.6043344 -0.04822528 14.60283
0.6041166 -0.0486883 14.60211
0.6038987 -0.04915132 14.60139
0.6036809 -0.04961435 14.60068
0.6034631 -0.05007737 14.59996
0.6032453 -0.0505404 14.59924
0.6030275 -0.05100342 14.59852
0.6028097 -0.05146644 14.5978
0.6025919 -0.05192947 14.59708
0.6023741 -0.05239249 14.59636
0.6021563 -0.05285551 14.59564
0.6019385 -0.05331854 14.59492
0.6017206 -0.05378156 14.59421
0.6052622 -0.05458362 14.59236
0.6050431 -0.05504954 14.59164
0.6048239 -0.05551545 14.59092
0.6046047 -0.05598137 14.59019
0.6043856 -0.05644729 14.58947
0.6041664 -0.05691321 14.58875
0.6039472 -0.05737912 14.58802
0.6037281 -0.05784504 14.5873
0.6035089 -0.05831096 14.58658
0.6032897 -0.05877687 14.58585
0.6030706 -0.0592428 14.58513
0.6028514 -0.05970871 14.58441
0.6026322 -0.06017463 14.58368
0.6024131 -0.06064055 14.58296
0.6021939 -0.06110646 14.58224
0.6019747 -0.06157238 14.58151
0.6054931 -0.06242364 14.5796
0.6052726 -0.06289245 14.57887
0.6050521 -0.06336126 14.57814
0.6048315 -0.06383008 14.57741
0.604611 -0.06429889 14.57668
0.6043904 -0.0647677 14.57596
0.60417 -0.06523651 14.57523
0.6039494 -0.06570532 14.5745
0.6074556 -0.06658262 14.57254
0.6072337 -0.06705433 14.57181
0.5995638 -0.06669748 14.57356
0.5993447 -0.06716339 14.57283
0.5991255 -0.06762931 14.57211
0.5989063 -0.06809523 14.57139
0.5986872 -0.06856114 14.57066
0.598468 -0.06902707 14.56994
0.5982488 -0.06949298 14.56922
0.5980297 -0.0699589 14.56849
0.6015236 -0.07086225 14.56649
0.601303 -0.07133106 14.56577
0.6010825 -0.07179987 14.56504
0.600862 -0.07226868 14.56431
0.6043491 -0.07318649 14.56229
0.6041272 -0.0736582 14.56156
0.6039053 -0.07412991 14.56082
0.607387 -0.07505929 14.55878
0.6071637 -0.0755339 14.55805
0.6069405 -0.07600849 14.55731
0.6104167 -0.07694946 14.55525
0.6101921 -0.07742696 14.55451
0.6099675 -0.07790445 14.55377
0.6134382 -0.07885699 14.55169
0.6169063 -0.07981532 14.54961
0.616679 -0.0802986 14.54886
0.6201429 -0.08126561 14.54676
0.6199142 -0.08175179 14.546
0.6196856 -0.08223796 14.54525
0.6194569 -0.08272414 14.54449
0.6192282 -0.08321031 14.54374
0.6189995 -0.08369648 14.54298
0.6187708 -0.08418266 14.54223
0.6185421 -0.08466884 14.54148
0.6183134 -0.08515501 14.54072
0.6180847 -0.08564118 14.53997
0.617856 -0.08612736 14.53921
0.6176273 -0.08661354 14.53846
0.6173986 -0.08709971 14.5377
0.6171699 -0.08758588 14.53695
0.6169412 -0.08807205 14.53619
0.6167125 -0.08855823 14.53544
0.6164838 -0.08904441 14.53468
0.6162551 -0.08953058 14.53393
0.6160264 -0.09001676 14.53317
0.6157977 -0.09050293 14.53242
0.615569 -0.09098911 14.53166
0.6153403 -0.09147528 14.53091
0.6151116 -0.09196146 14.53015
0.6148829 -0.09244763 14.5294
0.6146542 -0.0929338 14.52864
0.6144255 -0.09341998 14.52789
0.6141968 -0.09390616 14.52713
0.6139681 -0.09439233 14.52638
0.6137394 -0.0948785 14.52563
0.6171626 -0.09593233 14.52339
0.7208584 0.02509754 14.70289
0.7166307 0.02443798 14.70247
0.7163857 0.02391708 14.70166
0.7161406 0.02339618 14.70085
0.7158956 0.02287527 14.70004
0.7156506 0.02235437 14.69923
0.7154055 0.02183348 14.69843
0.7151605 0.02131257 14.69762
0.7149155 0.02079167 14.69681
0.7146704 0.02027077 14.696
0.7144254 0.01974987 14.69519
0.7141804 0.01922897 14.69438
0.7139353 0.01870806 14.69357
0.7176552 0.0182882 14.69232
0.7174088 0.0177644 14.6915
0.7171624 0.01724061 14.69069
0.7169161 0.01671681 14.68988
0.7206292 0.01628247 14.6886
0.7203814 0.01575579 14.68778
0.7201337 0.0152291 14.68696
0.7238412 0.01478318 14.68567
0.7235922 0.0142536 14.68484
0.7272957 0.013799 14.68354
0.7270452 0.01326653 14.68271
0.7307447 0.01280325 14.68139
0.7304929 0.01226788 14.68055
0.7341883 0.01179592 14.67922
0.6818473 0.0004606635 14.66887
0.6737759 -4.236679E-05 14.6693
0.6696258 -0.0005369713 14.66913
0.6654785 -0.001025786 14.66898
0.6613339 -0.001508814 14.66883
0.6571919 -0.001986055 14.6687
0.6569633 -0.002472231 14.66794
0.6528255 -0.002940785 14.66782
0.6486903 -0.003403556 14.66771
0.6484644 -0.003883946 14.66696
0.6443334 -0.004338033 14.66686
0.6441088 -0.004815529 14.66612
0.6438841 -0.005293021 14.66538
0.6397586 -0.005735532 14.66529
0.6395354 -0.006210131 14.66456
0.6354139 -0.006643963 14.66449
0.635192 -0.007115668 14.66375
0.6349701 -0.007587374 14.66302
0.6347482 -0.008059079 14.66229
0.6306335 -0.008478442 14.66224
0.630413 -0.008947254 14.66152
0.6301925 -0.009416067 14.66079
0.6299719 -0.009884877 14.66006
0.6297514 -0.01035369 14.65933
0.6256449 -0.01075569 14.65931
0.6254257 -0.0112216 14.65859
0.6252065 -0.01168752 14.65787
0.6249874 -0.01215344 14.65714
0.6247682 -0.01261935 14.65642
0.6323074 -0.01324784 14.65423
0.6320855 -0.01371954 14.6535
0.6318636 -0.01419125 14.65277
0.6316417 -0.01466295 14.65204
0.6314198 -0.01513466 14.65131
0.6273256 -0.01551061 14.65133
0.6271051 -0.01597943 14.6506
0.6268845 -0.01644824 14.64987
0.626664 -0.01691705 14.64914
0.6264434 -0.01738586 14.64841
0.6262229 -0.01785467 14.64769
0.6260024 -0.01832348 14.64696
0.6257818 -0.01879229 14.64623
0.6255614 -0.0192611 14.6455
0.6253408 -0.01972992 14.64478
0.6212615 -0.02007403 14.64485
0.6210424 -0.02053995 14.64412
0.6208232 -0.02100587 14.6434
0.620604 -0.02147179 14.64268
0.6203849 -0.02193771 14.64195
0.6201657 -0.02240362 14.64123
0.6199465 -0.02286954 14.64051
0.6197274 -0.02333546 14.63978
0.6195081 -0.02380137 14.63906
0.619289 -0.02426729 14.63834
0.6190698 -0.02473321 14.63761
0.6188506 -0.02519913 14.63689
0.6186315 -0.02566504 14.63617
0.6184123 -0.02613096 14.63544
0.6181931 -0.02659688 14.63472
0.617974 -0.0270628 14.634
0.6177548 -0.02752871 14.63327
0.6175357 -0.02799463 14.63255
0.6173165 -0.02846055 14.63183
0.6170973 -0.02892647 14.6311
0.6168782 -0.02939238 14.63038
0.616659 -0.0298583 14.62966
0.612611 -0.03013586 14.62983
0.6123932 -0.03059889 14.62911
0.6121754 -0.03106191 14.62839
0.6119576 -0.03152493 14.62767
0.6117398 -0.03198795 14.62695
0.611522 -0.03245098 14.62624
0.6113042 -0.032914 14.62552
0.6110864 -0.03337703 14.6248
0.6108686 -0.03384005 14.62408
0.6106508 -0.03430307 14.62336
0.6104329 -0.0347661 14.62264
0.6102151 -0.03522912 14.62192
0.6099973 -0.03569214 14.6212
0.6097795 -0.03615517 14.62048
0.6095617 -0.03661819 14.61977
0.6093439 -0.03708122 14.61905
0.6091261 -0.03754424 14.61833
0.6089083 -0.03800726 14.61761
0.6086905 -0.03847029 14.61689
0.6084727 -0.03893331 14.61617
0.6082548 -0.03939633 14.61545
0.6080371 -0.03985935 14.61473
0.6078193 -0.04032238 14.61402
0.6076015 -0.0407854 14.6133
0.6073837 -0.04124843 14.61258
0.6071658 -0.04171145 14.61186
0.606948 -0.04217447 14.61114
0.6067302 -0.0426375 14.61042
0.6065124 -0.04310052 14.6097
0.6062946 -0.04356354 14.60898
0.6060768 -0.04402657 14.60826
0.605859 -0.04448959 14.60755
0.6056412 -0.04495262 14.60683
0.6054234 -0.04541564 14.60611
0.6052056 -0.04587866 14.60539
0.6049877 -0.04634168 14.60467
0.6047699 -0.04680471 14.60395
0.6045521 -0.04726773 14.60323
0.6043344 -0.04773076 14.60251
0.6041166 -0.04819378 14.6018
0.6038987 -0.0486568 14.60108
0.6036809 -0.04911983 14.60036
0.6034631 -0.04958285 14.59964
0.6070156 -0.05035867 14.59783
0.6067964 -0.05082458 14.59711
0.6065772 -0.0512905 14.59638
0.6063581 -0.05175642 14.59566
0.6061389 -0.05222234 14.59494
0.6059197 -0.05268825 14.59421
0.6057006 -0.05315417 14.59349
0.6054814 -0.05362009 14.59277
0.6052622 -0.05408601 14.59204
0.6050431 -0.05455192 14.59132
0.6048239 -0.05501784 14.5906
0.6046047 -0.05548376 14.58987
0.6043856 -0.05594968 14.58915
0.6041664 -0.0564156 14.58843
0.6039472 -0.05688151 14.5877
0.6037281 -0.05734743 14.58698
0.6035089 -0.05781335 14.58626
0.6032897 -0.05827926 14.58553
0.6030706 -0.05874518 14.58481
0.6028514 -0.0592111 14.58409
0.6026322 -0.05967702 14.58336
0.6061547 -0.0605165 14.58146
0.6059342 -0.06098531 14.58073
0.6057137 -0.06145412 14.58
0.6054931 -0.06192293 14.57927
0.6052726 -0.06239175 14.57854
0.6050521 -0.06286056 14.57782
0.6048315 -0.06332938 14.57709
0.604611 -0.06379818 14.57636
0.6043904 -0.06426699 14.57563
0.60417 -0.06473581 14.57491
0.6076775 -0.06560712 14.57295
0.6074556 -0.06607883 14.57222
0.6072337 -0.06655053 14.57148
0.6070118 -0.06702223 14.57075
0.6067899 -0.06749394 14.57002
0.5991255 -0.0671317 14.57179
0.5989063 -0.06759761 14.57107
0.5986872 -0.06806353 14.57034
0.598468 -0.06852945 14.56962
0.5982488 -0.06899537 14.5689
0.6017441 -0.06989273 14.5669
0.6015236 -0.07036154 14.56617
0.601303 -0.07083035 14.56544
0.6010825 -0.07129917 14.56472
0.600862 -0.07176798 14.56399
0.6043491 -0.0726827 14.56196
0.6041272 -0.0731544 14.56123
0.6039053 -0.07362611 14.5605
0.607387 -0.07455241 14.55846
0.6071637 -0.07502701 14.55772
0.6069405 -0.07550161 14.55698
0.6104167 -0.07643948 14.55492
0.6101921 -0.07691698 14.55418
0.6136643 -0.07786354 14.55211
0.6134382 -0.07834392 14.55136
0.6169063 -0.07929916 14.54928
0.616679 -0.07978244 14.54852
0.6201429 -0.08074636 14.54642
0.6199142 -0.08123253 14.54567
0.6196856 -0.08171871 14.54492
0.6194569 -0.08220489 14.54416
0.6192282 -0.08269107 14.54341
0.6189995 -0.08317723 14.54265
0.6187708 -0.08366341 14.5419
0.6185421 -0.08414958 14.54114
0.6183134 -0.08463576 14.54039
0.6180847 -0.08512194 14.53963
0.617856 -0.08560811 14.53888
0.6176273 -0.08609428 14.53812
0.6173986 -0.08658046 14.53737
0.6171699 -0.08706664 14.53661
0.6169412 -0.08755281 14.53586
0.6167125 -0.08803898 14.5351
0.6164838 -0.08852516 14.53435
0.6162551 -0.08901133 14.53359
0.6196932 -0.09003024 14.53141
0.6194631 -0.0905193 14.53065
0.6192331 -0.09100837 14.52989
0.6190031 -0.09149744 14.52913
0.7250888 0.0263254 14.70296
0.7208584 0.02565697 14.70253
0.7166307 0.02499432 14.70211
0.7163857 0.02447342 14.7013
0.7161406 0.02395252 14.70049
0.7158956 0.02343161 14.69968
0.7156506 0.02291071 14.69888
0.7154055 0.02238981 14.69807
0.7151605 0.02186891 14.69726
0.7149155 0.02134801 14.69645
0.7146704 0.02082711 14.69564
0.7144254 0.02030621 14.69483
0.7141804 0.0197853 14.69402
0.7139353 0.0192644 14.69322
0.7176552 0.01884763 14.69196
0.7174088 0.01832383 14.69114
0.7171624 0.01780003 14.69033
0.7169161 0.01727624 14.68952
0.7206292 0.01684499 14.68824
0.7203814 0.0163183 14.68742
0.7201337 0.01579161 14.6866
0.7238412 0.01534879 14.6853
0.7235922 0.01481921 14.68448
0.7272957 0.0143677 14.68317
0.7270452 0.01383523 14.68234
0.7307447 0.01337504 14.68102
0.7344415 0.01290907 14.67968
0.6896846 0.001009922 14.66732
0.6737759 0.0004892458 14.66896
0.6696258 -8.449875E-06 14.66879
0.6654785 -0.0005003558 14.66864
0.6613339 -0.0009864747 14.6685
0.6571919 -0.001466804 14.66836
0.6569633 -0.001952979 14.66761
0.6528255 -0.002424628 14.66749
0.6486903 -0.002890487 14.66737
0.6484644 -0.003370876 14.66663
0.6482384 -0.003851262 14.66588
0.6441088 -0.004305551 14.66579
0.6438841 -0.004783043 14.66505
0.6397586 -0.005228646 14.66497
0.6395354 -0.005703244 14.66423
0.6393121 -0.006177843 14.66349
0.635192 -0.006611872 14.66343
0.6349701 -0.007083578 14.6627
0.6347482 -0.007555283 14.66197
0.6345263 -0.008026989 14.66123
0.630413 -0.00844655 14.66119
0.6301925 -0.008915362 14.66047
0.6299719 -0.009384172 14.65974
0.6297514 -0.009852985 14.65901
0.6295308 -0.0103218 14.65828
0.6254257 -0.01072399 14.65827
0.6252065 -0.01118991 14.65755
0.636633 -0.01187303 14.65465
0.6364098 -0.01234763 14.65391
0.6323074 -0.01274404 14.65391
0.6320855 -0.01321575 14.65318
0.6318636 -0.01368745 14.65245
0.6316417 -0.01415916 14.65171
0.6314198 -0.01463086 14.65098
0.6311979 -0.01510257 14.65025
0.630976 -0.01557427 14.64952
0.6268845 -0.01594753 14.64955
0.626664 -0.01641634 14.64882
0.6264434 -0.01688515 14.64809
0.6262229 -0.01735397 14.64736
0.6260024 -0.01782278 14.64664
0.6257818 -0.01829159 14.64591
0.6255614 -0.0187604 14.64518
0.6253408 -0.01922921 14.64445
0.6251203 -0.01969802 14.64373
0.6248997 -0.02016683 14.643
0.6246792 -0.02063564 14.64227
0.6244587 -0.02110446 14.64154
0.6203849 -0.02144009 14.64163
0.6201657 -0.02190601 14.64091
0.6199465 -0.02237193 14.64019
0.6197274 -0.02283784 14.63946
0.6195081 -0.02330376 14.63874
0.619289 -0.02376968 14.63802
0.6190698 -0.0242356 14.63729
0.6188506 -0.02470151 14.63657
0.6186315 -0.02516743 14.63585
0.6184123 -0.02563335 14.63512
0.6181931 -0.02609926 14.6344
0.617974 -0.02656518 14.63368
0.6177548 -0.0270311 14.63295
0.6175357 -0.02749702 14.63223
0.6173165 -0.02796293 14.63151
0.6170973 -0.02842885 14.63078
0.6168782 -0.02889477 14.63006
0.616659 -0.02936069 14.62934
0.6164398 -0.0298266 14.62861
0.6162207 -0.03029252 14.62789
0.6160015 -0.03075844 14.62717
0.6157823 -0.03122436 14.62644
0.6155632 -0.03169027 14.62572
0.615344 -0.03215619 14.625
0.6151248 -0.03262211 14.62427
0.6149057 -0.03308802 14.62355
0.6146865 -0.03355394 14.62283
0.6144673 -0.03401986 14.6221
0.6142482 -0.03448578 14.62138
0.614029 -0.03495169 14.62066
0.6138098 -0.03541761 14.61993
0.6135906 -0.03588353 14.61921
0.6133714 -0.03634945 14.61849
0.6131523 -0.03681536 14.61776
0.6129331 -0.03728128 14.61704
0.6127139 -0.0377472 14.61632
0.6124948 -0.03821312 14.61559
0.6122756 -0.03867903 14.61487
0.6120564 -0.03914495 14.61415
0.6118373 -0.03961087 14.61342
0.6116181 -0.04007678 14.6127
0.6113989 -0.0405427 14.61198
0.6111798 -0.04100862 14.61125
0.6109606 -0.04147454 14.61053
0.6107414 -0.04194046 14.60981
0.6105223 -0.04240637 14.60908
0.6103031 -0.04287229 14.60836
0.6100839 -0.04333821 14.60764
0.6098648 -0.04380413 14.60691
0.6096456 -0.04427004 14.60619
0.6094264 -0.04473596 14.60547
0.6092073 -0.04520188 14.60474
0.6089881 -0.0456678 14.60402
0.6087689 -0.04613371 14.6033
0.6085498 -0.04659963 14.60257
0.6083306 -0.04706555 14.60185
0.6081114 -0.04753147 14.60113
0.6078923 -0.04799738 14.6004
0.607673 -0.0484633 14.59968
0.6074539 -0.04892922 14.59896
0.6072347 -0.04939514 14.59823
0.6070156 -0.04986105 14.59751
0.6067964 -0.05032697 14.59679
0.6065772 -0.05079289 14.59606
0.6063581 -0.05125881 14.59534
0.6061389 -0.05172472 14.59462
0.6059197 -0.05219064 14.59389
0.6057006 -0.05265656 14.59317
0.6054814 -0.05312248 14.59245
0.6052622 -0.05358839 14.59172
0.6050431 -0.05405431 14.591
0.6048239 -0.05452023 14.59028
0.6046047 -0.05498615 14.58955
0.6043856 -0.05545206 14.58883
0.6041664 -0.05591798 14.58811
0.6039472 -0.0563839 14.58738
0.6037281 -0.05684981 14.58666
0.6035089 -0.05731573 14.58594
0.6070368 -0.05814055 14.58404
0.6068163 -0.05860936 14.58332
0.6065958 -0.05907817 14.58259
0.6063752 -0.05954698 14.58186
0.6061547 -0.0600158 14.58113
0.6059342 -0.06048461 14.58041
0.6057137 -0.06095342 14.57968
0.6054931 -0.06142223 14.57895
0.6052726 -0.06189104 14.57822
0.6050521 -0.06235985 14.57749
0.6048315 -0.06282867 14.57677
0.604611 -0.06329748 14.57604
0.6081213 -0.06415991 14.57409
0.6078994 -0.06463162 14.57336
0.6076775 -0.06510332 14.57262
0.6074556 -0.06557503 14.57189
0.6072337 -0.06604674 14.57116
0.6070118 -0.06651844 14.57043
0.6067899 -0.06699014 14.5697
0.6102893 -0.06787574 14.56771
0.610066 -0.06835033 14.56697
0.5986872 -0.06756592 14.57002
0.598468 -0.06803184 14.5693
0.6019647 -0.06892321 14.5673
0.6017441 -0.06939203 14.56658
0.6015236 -0.06986084 14.56585
0.601303 -0.07032965 14.56512
0.6010825 -0.07079846 14.56439
0.600862 -0.07126727 14.56367
0.6043491 -0.07217891 14.56164
0.6041272 -0.07265061 14.56091
0.6039053 -0.07312232 14.56017
0.607387 -0.07404552 14.55813
0.6071637 -0.07452012 14.55739
0.6069405 -0.07499472 14.55666
0.6104167 -0.07592951 14.55459
0.6101921 -0.076407 14.55385
0.6136643 -0.07735047 14.55178
0.6134382 -0.07783085 14.55103
0.6169063 -0.07878301 14.54894
0.616679 -0.07926628 14.54819
0.6201429 -0.08022711 14.54609
0.6199142 -0.08071329 14.54533
0.6233742 -0.0816828 14.54322
0.6231441 -0.08217186 14.54246
0.622914 -0.08266094 14.5417
0.6226839 -0.08315001 14.54094
0.6224539 -0.08363908 14.54018
0.6222239 -0.08412814 14.53942
0.6219938 -0.08461721 14.53866
0.6217637 -0.08510628 14.5379
0.6215337 -0.08559535 14.53714
0.6213036 -0.08608442 14.53639
0.6210735 -0.08657349 14.53563
0.6208435 -0.08706255 14.53487
0.7211047 0.02674019 14.70298
0.7168757 0.02607156 14.70256
0.7166307 0.02555066 14.70175
0.7163857 0.02502975 14.70094
0.7161406 0.02450885 14.70014
0.7158956 0.02398795 14.69933
0.7156506 0.02346705 14.69852
0.7154055 0.02294615 14.69771
0.7151605 0.02242525 14.6969
0.7149155 0.02190435 14.69609
0.7146704 0.02138345 14.69528
0.7144254 0.02086254 14.69447
0.7141804 0.02034164 14.69367
0.7139353 0.01982074 14.69286
0.7176552 0.01940705 14.6916
0.7174088 0.01888326 14.69078
0.7171624 0.01835946 14.68997
0.7169161 0.01783567 14.68916
0.7206292 0.01740751 14.68787
0.7203814 0.01688082 14.68706
0.7240904 0.01644398 14.68576
0.7238412 0.0159144 14.68494
0.7235922 0.01538482 14.68412
0.7272957 0.0149364 14.6828
0.7270452 0.01440393 14.68198
0.7307447 0.01394683 14.68065
0.6776932 0.001026787 14.668
0.6735417 0.0005231097 14.66784
0.6654785 2.507443E-05 14.6683
0.6613339 -0.0004641323 14.66816
0.6611038 -0.0009532011 14.6674
0.6569633 -0.001433731 14.66727
0.6528255 -0.001908468 14.66715
0.6525981 -0.00239175 14.6664
0.6484644 -0.002857811 14.6663
0.6482384 -0.003338196 14.66555
0.6441088 -0.003795573 14.66546
0.6438841 -0.004273065 14.66472
0.6397586 -0.004721762 14.66464
0.6395354 -0.005196361 14.6639
0.6393121 -0.00567096 14.66317
0.635192 -0.006108076 14.66311
0.6349701 -0.006579782 14.66237
0.6347482 -0.007051487 14.66164
0.6345263 -0.007523193 14.66091
0.630413 -0.007945845 14.66087
0.6301925 -0.008414658 14.66014
0.6299719 -0.008883468 14.65942
0.6297514 -0.00935228 14.65869
0.6295308 -0.00982109 14.65796
0.6409642 -0.01048047 14.65508
0.6368563 -0.01089155 14.65506
0.636633 -0.01136615 14.65433
0.6364098 -0.01184075 14.65359
0.6361865 -0.01231535 14.65285
0.6320855 -0.01271195 14.65285
0.6318636 -0.01318366 14.65212
0.6316417 -0.01365536 14.65139
0.6314198 -0.01412707 14.65066
0.6311979 -0.01459877 14.64992
0.630976 -0.01507048 14.64919
0.6307542 -0.01554218 14.64846
0.6305323 -0.01601389 14.64773
0.6264434 -0.01638445 14.64777
0.6262229 -0.01685326 14.64704
0.6260024 -0.01732207 14.64631
0.6257818 -0.01779088 14.64559
0.6255614 -0.01825969 14.64486
0.6253408 -0.01872851 14.64413
0.6251203 -0.01919732 14.6434
0.6248997 -0.01966613 14.64268
0.6246792 -0.02013494 14.64195
0.6244587 -0.02060375 14.64122
0.6242381 -0.02107256 14.64049
0.6240176 -0.02154137 14.63976
0.6237971 -0.02201018 14.63904
0.6235766 -0.022479 14.63831
0.623356 -0.02294781 14.63758
0.619289 -0.02327206 14.6377
0.6190698 -0.02373798 14.63697
0.6188506 -0.0242039 14.63625
0.6186315 -0.02466982 14.63552
0.6184123 -0.02513573 14.6348
0.6181931 -0.02560165 14.63408
0.617974 -0.02606757 14.63336
0.6177548 -0.02653349 14.63263
0.6175357 -0.0269994 14.63191
0.6173165 -0.02746532 14.63119
0.6170973 -0.02793124 14.63046
0.6168782 -0.02839716 14.62974
0.616659 -0.02886307 14.62901
0.6164398 -0.02932899 14.62829
0.6162207 -0.02979491 14.62757
0.6160015 -0.03026083 14.62685
0.6157823 -0.03072674 14.62612
0.6155632 -0.03119266 14.6254
0.615344 -0.03165857 14.62467
0.6151248 -0.03212449 14.62395
0.6149057 -0.03259041 14.62323
0.6146865 -0.03305633 14.62251
0.6144673 -0.03352224 14.62178
0.6142482 -0.03398816 14.62106
0.614029 -0.03445408 14.62034
0.6138098 -0.03492 14.61961
0.6135906 -0.03538591 14.61889
0.6133714 -0.03585183 14.61817
0.6131523 -0.03631775 14.61744
0.6129331 -0.03678367 14.61672
0.6127139 -0.03724958 14.616
0.6124948 -0.0377155 14.61527
0.6122756 -0.03818142 14.61455
0.6120564 -0.03864734 14.61383
0.6118373 -0.03911326 14.6131
0.6116181 -0.03957917 14.61238
0.6113989 -0.04004509 14.61166
0.6111798 -0.04051101 14.61093
0.6109606 -0.04097693 14.61021
0.6107414 -0.04144284 14.60949
0.6105223 -0.04190876 14.60876
0.6103031 -0.04237468 14.60804
0.6100839 -0.0428406 14.60732
0.6098648 -0.04330651 14.60659
0.6096456 -0.04377243 14.60587
0.6094264 -0.04423835 14.60515
0.6092073 -0.04470427 14.60442
0.6089881 -0.04517018 14.6037
0.6087689 -0.0456361 14.60298
0.6085498 -0.04610202 14.60225
0.6083306 -0.04656794 14.60153
0.6081114 -0.04703385 14.60081
0.6078923 -0.04749977 14.60008
0.607673 -0.04796569 14.59936
0.6074539 -0.04843161 14.59864
0.6072347 -0.04889752 14.59791
